# .PCD v0.7 - Point Cloud Data file format
VERSION 0.7
FIELDS x y z intensity
SIZE 4 4 4 4
TYPE F F F F
COUNT 1 1 1 1
WIDTH 1120
HEIGHT 1
VIEWPOINT 0 0 0 1 0 0 0
POINTS 1120
DATA ascii
60.507042 -2.8376617 -0.94811028 24.020456
60.473827 -2.790818 -0.90046096 18.532824
60.650059 -2.7432487 -0.90198261 20.306849
61.043026 -2.7573071 -0.91982216 21.56283
58.116039 -1.126598 -0.92966318 11.005687
55.244461 -0.91528738 -0.91345221 24.68121
55.110889 -0.8617031 -0.97952092 21.011679
55.244816 -0.89530665 -0.91689652 29.201508
55.864399 -0.80671406 -0.90622383 33.566154
55.283913 -0.76565081 -0.91859132 25.618793
55.470238 -0.72998655 -0.90406764 33.208607
55.690273 -0.71034223 -0.93638915 31.395479
55.940418 -0.7464456 -0.97707051 24.442461
55.68515 -0.67293102 -0.97003901 28.206379
56.12595 -0.63305813 -0.99467707 25.952524
56.235554 -0.63904762 -0.98462242 16.009245
56.466469 -0.69180369 -0.92892218 23.226423
56.384502 -0.50326926 -0.95309198 25.667915
56.458057 -0.55924457 -0.92552114 28.515757
56.519436 -0.53013617 -0.90740657 30.621658
58.139275 -0.51092005 -0.90431523 14.121695
56.39711 -0.46939313 -0.94855636 14.43461
58.228035 -0.47428107 -0.94047105 16.938154
56.175045 -0.31207943 -0.95811599 36.066711
56.425686 -0.32378531 -0.94100171 21.358477
58.120838 -0.30477473 -0.90319383 13.637075
55.846199 -0.27610207 -0.99933493 30.014744
56.383656 -0.24339569 -0.9530676 14.505797
56.478851 -0.17641246 -0.90334183 36.274422
56.500126 -0.14779703 -0.93046665 34.874115
58.096947 -0.12362249 -0.91018265 11.638636
58.103138 -0.12567231 -0.90788603 16.150135
56.379559 -0.042950075 -0.97080511 17.122103
56.325886 0.079967849 -0.97575116 29.18347
56.417278 0.032751035 -0.93678749 30.700695
58.099159 0.097089879 -0.91654104 12.955001
56.365986 0.13315527 -0.98142689 16.595098
58.096596 0.10895531 -0.91226971 15.34122
57.93988 0.35729921 -0.93102163 11.005153
58.085567 0.33139399 -0.91500258 13.793061
55.692059 -6.9125352 -0.87105531 22.792397
55.672485 -6.5924239 -0.89315659 23.493036
55.864323 -6.5926299 -0.84228319 23.035667
58.500172 -6.4683409 -0.86852282 23.05069
55.677811 -6.2352257 -0.83644527 23.542221
59.553482 -6.1175003 -0.86063331 22.038427
58.503315 -6.0702462 -0.811948 22.925882
55.67178 -5.9756646 -0.85880953 23.715452
54.632023 -5.8128762 -0.89062256 25.118322
57.452087 -5.8403573 -0.88066477 22.820829
57.65316 -5.8560324 -0.8382715 19.84214
59.689861 -5.8880029 -0.88831598 23.365295
60.275639 -5.8262215 -0.89620602 15.016331
54.694351 -5.7875347 -0.85122472 21.872335
55.57782 -5.7073026 -0.88384515 25.035507
55.686478 -5.7050309 -0.86043042 24.292048
57.491482 -5.7665076 -0.85918361 22.03878
57.851711 -5.7998719 -0.80472112 19.273607
58.440319 -5.7663064 -0.81522661 23.551214
57.605732 -5.6261544 -0.84734422 24.053436
54.646893 -5.4975324 -0.86945343 23.383127
55.659451 -5.4321346 -0.85234004 24.549006
57.925575 -5.464519 -0.86618227 24.426384
57.534607 -5.3470545 -0.88952601 21.023344
57.885914 -5.3239288 -0.82212156 23.542511
55.689789 -5.2932582 -0.89201069 25.102926
54.589233 -5.1839094 -0.87756819 25.894295
55.687511 -5.1159792 -0.85375994 25.390038
60.401455 -5.1240268 -0.82723004 20.024761
54.607269 -5.075191 -0.88168287 23.218811
55.865398 -5.0089979 -0.87318593 26.048544
56.009415 -4.988276 -0.88640761 25.187761
57.428989 -4.9087038 -0.82009405 25.05451
54.566837 -4.8778334 -0.86087483 26.252481
55.567162 -4.8495951 -0.83814621 25.84371
55.891026 -4.8549724 -0.88797206 26.58094
60.3778 -4.8259854 -0.84050339 20.524319
55.708008 -4.7007418 -0.86675507 24.725693
56.971905 -4.7062898 -0.84529322 22.773794
57.134083 -4.7001648 -0.89160264 22.022852
57.270611 -4.6579604 -0.88786715 25.452911
54.552601 -4.5959406 -0.84310359 26.452749
55.505497 -4.5225272 -0.8512426 27.034351
57.293915 -4.544591 -0.86435056 24.686146
57.366634 -4.5983295 -0.80012864 24.804981
55.684879 -4.4959803 -0.8639338 26.675903
55.736721 -4.4523954 -0.89567655 27.700277
56.973232 -4.4796515 -0.86659247 25.252659
57.164379 -4.4223175 -0.87606168 21.286076
57.435711 -4.4363112 -0.8671633 24.314465
54.645386 -4.3674893 -0.87783259 21.196781
60.43224 -4.382647 -0.81119841 23.034454
54.537231 -4.2600765 -0.81908303 25.141001
55.518265 -4.255815 -0.83508056 27.3673
55.631985 -4.2696133 -0.89290196 25.774078
59.521908 -4.2668214 -0.83671349 25.036926
54.644882 -4.10496 -0.80981112 20.64357
59.623463 -4.0856972 -0.87226945 21.661356
57.490211 -3.8783755 -0.81280506 22.402891
59.617554 -3.8620255 -0.89222211 27.236191
56.674805 -3.7116845 -0.85079855 18.379507
54.600574 -3.6435671 -0.843216 24.920242
56.664509 -3.6918621 -0.85875303 14.179296
57.823715 -3.6394758 -0.85484123 26.555767
59.336781 -3.6118069 -0.84481472 27.036795
59.439537 -3.61867 -0.84749663 28.059875
60.336372 -3.6360219 -0.860093 20.649218
56.730183 -3.5061569 -0.87831831 24.104202
57.739403 -3.5601609 -0.87566841 22.175022
57.897213 -3.5079961 -0.87597656 24.069637
59.095314 -3.5129662 -0.84738582 23.024158
59.281624 -3.5092335 -0.87238336 25.20882
59.372032 -3.5414903 -0.87758338 20.018133
59.519054 -3.5188105 -0.85253006 27.452753
60.33799 -3.5832129 -0.88280702 23.977386
54.513477 -3.445245 -0.84227484 27.642126
57.480339 -3.4571321 -0.83209568 19.984701
57.534245 -3.4797957 -0.861139 14.012929
59.289677 -3.4743466 -0.85419834 23.527557
57.070534 -3.3890505 -0.81731123 26.456877
57.114567 -3.3934476 -0.89196652 29.34585
57.474243 -3.38361 -0.84039688 18.516909
57.716202 -3.3474922 -0.85178512 30.042252
59.225883 -3.3574691 -0.89806139 29.060806
60.198288 -3.3708482 -0.89263099 23.021996
60.310627 -3.3179011 -0.86486655 20.378801
54.678303 -3.2755344 -0.86092967 26.018822
54.737698 -3.2150915 -0.84294939 25.974049
55.053291 -3.2267556 -0.85761541 26.859407
55.285583 -3.2192585 -0.87017018 27.949141
55.302238 -3.2073939 -0.8500576 25.02297
57.342587 -3.2750835 -0.83563524 19.685537
58.673504 -3.2905452 -0.80307186 20.018412
59.095501 -3.2894809 -0.82001919 24.361557
59.103542 -3.278127 -0.8265475 23.023678
59.50029 -3.2774615 -0.87507939 25.067833
53.483471 -3.1274958 -0.85428029 26.275291
54.50024 -3.1133592 -0.89986467 21.978935
54.73793 -3.1751113 -0.85870481 31.423811
55.319656 -3.1555834 -0.89479667 27.882788
55.504536 -3.1345863 -0.89899534 24.959801
56.099926 -3.1422911 -0.87916762 19.759048
56.685257 -3.1343296 -0.88825476 18.874748
56.707684 -3.1300168 -0.8765732 19.614105
58.414074 -3.1473839 -0.80979693 20.518429
53.687149 -3.0704639 -0.89749247 25.215767
53.858082 -3.0717642 -0.83207309 28.876415
54.0956 -3.0852106 -0.85750997 24.898041
54.109066 -3.084841 -0.86989599 23.393036
54.351921 -3.0842857 -0.87913799 23.33852
57.15583 -3.0896823 -0.87327403 25.204565
57.241028 -3.0413098 -0.88934672 19.0508
57.771778 -3.0451 -0.85360837 28.058212
57.989792 -3.0792303 -0.81724846 23.403551
58.122684 -3.030798 -0.85388929 18.830471
58.295498 -3.0851843 -0.8268168 16.247545
58.311493 -3.0779486 -0.82683736 17.492899
58.693249 -3.0604544 -0.81293863 18.289415
58.709122 -3.0497894 -0.83495229 21.614021
58.931389 -3.0067623 -0.83386248 21.747213
53.69598 -2.9800317 -0.87623429 31.867628
53.71283 -2.992543 -0.80431211 27.48031
57.350056 -2.9461651 -0.87693757 25.609949
58.450489 -2.9397652 -0.89552355 15.212626
59.061203 -2.9611681 -0.83746868 13.01162
59.117653 -2.9720535 -0.85414982 18.915215
59.280903 -2.9249487 -0.89530021 19.465069
59.30439 -2.9266782 -0.89087152 16.868073
59.635422 -2.9222651 -0.88313657 12.927252
60.471359 -2.9124317 -0.8861832 27.571695
60.074867 -2.8720419 -0.86659062 17.66341
60.307484 -2.8116179 -0.89092988 17.517071
60.667053 -2.8381147 -0.87436211 26.09094
60.132954 -2.7907372 -0.88037091 28.908033
60.467514 -2.7916665 -0.87814641 15.955708
60.634464 -2.7435246 -0.89245069 16.147552
60.932446 -2.7344582 -0.86800081 31.336245
61.064648 -2.7521274 -0.89339316 18.715305
57.958546 -1.1166598 -0.88556004 23.323351
55.445896 -0.80549383 -0.8384859 36.360218
55.712837 -0.82148838 -0.82685602 26.072886
56.507278 -0.8021028 -0.88177466 18.010841
55.471394 -0.75167751 -0.88882726 30.397928
58.179371 -0.61065102 -0.89135551 23.513325
58.146618 -0.50524074 -0.894768 17.963902
56.760796 -0.44189739 -0.85959697 29.072245
58.273663 -0.45184493 -0.87327516 19.475475
58.121235 -0.30001706 -0.89942974 13.966074
56.476765 -0.1587441 -0.88480359 36.021168
55.722504 -7.0980873 -0.74369746 20.461035
55.864746 -6.8285236 -0.76617903 21.048056
54.804981 -6.4093528 -0.70215148 19.05891
59.701275 -6.3549705 -0.77523404 22.047737
57.560654 -5.7530546 -0.70727277 20.861019
59.585205 -5.7699623 -0.72795159 19.538097
59.679768 -5.7734542 -0.74051452 21.138136
58.031601 -5.6759148 -0.78658623 23.05232
58.356327 -5.5617442 -0.73734695 22.483908
57.877068 -5.4985161 -0.76144767 22.060732
58.073635 -5.4656606 -0.74192894 22.159084
58.106354 -5.4746919 -0.72793406 21.917778
57.945782 -5.3444538 -0.75222921 22.042351
58.048237 -5.3557611 -0.74800825 23.0525
58.214989 -5.3099327 -0.79830492 23.060305
54.689068 -5.0588565 -0.75755864 21.173826
55.957428 -5.0044804 -0.71587867 23.048281
57.261829 -4.6134377 -0.74610245 22.438093
57.483341 -4.6101499 -0.71356732 21.895287
60.396725 -4.6201682 -0.72027558 19.023951
54.654732 -4.5654535 -0.70561719 19.694445
56.938282 -4.5554495 -0.73652053 20.27289
57.279564 -4.4625807 -0.7095319 19.702429
57.336857 -4.4439263 -0.71767962 19.035872
57.413906 -4.4681082 -0.74431235 22.729685
60.379215 -4.4560347 -0.7090953 19.023701
59.860378 -4.3354125 -0.76620406 23.036009
60.407146 -4.3097668 -0.74926198 17.018412
59.456585 -4.2054954 -0.7501995 20.024797
60.412426 -4.1185308 -0.77725643 23.034172
54.581944 -4.0100608 -0.79892749 23.562536
59.822285 -4.0718417 -0.73306394 21.363403
54.538906 -3.9607809 -0.76701528 24.104822
59.635181 -3.926053 -0.71029615 23.202883
56.743683 -3.8843479 -0.71379048 14.035769
60.354744 -3.8590324 -0.70382893 17.442688
56.744202 -3.7195981 -0.71255857 17.896883
57.141048 -3.716646 -0.70554811 24.53657
54.497997 -3.6758626 -0.75579023 24.134218
54.51186 -3.6811249 -0.77902013 25.833473
56.841084 -3.6604073 -0.76373774 13.011506
57.27602 -3.6507807 -0.78483123 26.536173
57.317787 -3.6626358 -0.79618973 25.028215
60.377258 -3.6370182 -0.71506172 23.033613
59.082741 -3.5046544 -0.76919651 19.018364
59.334454 -3.5489626 -0.78468943 26.044577
56.621632 -3.4664278 -0.74614811 26.058441
57.64711 -3.3561909 -0.76539612 17.858114
58.678211 -3.3141003 -0.70995277 21.703314
60.282398 -3.3275769 -0.71278441 19.449362
60.343601 -3.3487513 -0.79136312 18.016895
54.876656 -3.2048035 -0.70960522 15.960825
56.699352 -3.2819598 -0.70021725 13.320908
57.004879 -3.2120724 -0.70562571 12.510894
57.280148 -3.2576809 -0.72665304 15.664764
58.575317 -3.2561505 -0.72962141 14.013842
58.864765 -3.2973735 -0.72903222 22.260656
59.156166 -3.2463388 -0.72144341 16.515676
53.491493 -3.1197734 -0.74195158 23.813408
53.534222 -3.1098411 -0.79970622 27.493113
56.966625 -3.1257656 -0.78189492 13.726983
57.673 -3.1031799 -0.74282348 27.305819
53.658195 -3.0717499 -0.71207505 12.387652
54.052197 -3.0825737 -0.72042948 14.214213
58.153637 -3.0271642 -0.7308678 14.763733
58.472511 -3.0221462 -0.70306462 12.878549
58.880539 -3.070168 -0.7220794 26.055662
58.937672 -3.0807433 -0.70162535 25.70422
59.136204 -3.0059047 -0.78948915 27.626831
59.418468 -3.0176454 -0.72392654 26.616434
53.767445 -2.9850719 -0.74537247 29.057085
53.806934 -2.9812222 -0.79286927 24.065918
54.280293 -2.9454677 -0.7780354 26.024395
57.399662 -2.9195423 -0.7819705 28.431946
57.523396 -2.9109232 -0.72285318 15.094769
58.741463 -2.9710925 -0.74758053 14.613179
59.863522 -2.9788342 -0.73801291 13.795198
60.089233 -2.906636 -0.70578676 13.491882
60.20694 -2.8353615 -0.75469655 11.676225
60.896461 -2.7080488 -0.72178972 23.4576
57.947773 -1.1200649 -0.73138839 13.772625
55.427193 -0.85535622 -0.78737569 21.013319
55.52948 -0.76238346 -0.789204 18.01125
57.887218 -0.40738592 -0.75089908 10.00633
58.124523 -0.48131588 -0.70462918 12.632828
57.961811 -0.35109821 -0.74155378 15.926167
58.293934 -0.34892476 -0.76751941 10.006245
58.114456 0.077850923 -0.71571326 11.350456
58.09267 0.30092663 -0.72327375 11.625851
58.105938 0.32078451 -0.70582771 12.550359
55.739071 -6.6482525 -0.61614203 18.334139
55.728939 -6.291182 -0.60952914 18.548552
60.175049 -6.2995887 -0.66196918 17.031954
59.616943 -6.1643085 -0.61557698 17.038313
54.639591 -6.0150476 -0.68493563 20.801523
59.505779 -6.0793395 -0.67856807 21.048309
57.981297 -5.9144993 -0.64609051 17.023607
58.487995 -5.9719324 -0.62442607 20.058989
59.58429 -5.9617019 -0.69682378 19.038246
59.725445 -5.9743252 -0.67756367 18.260122
59.946514 -5.9684963 -0.60371095 19.047173
60.18541 -5.9223442 -0.66658831 17.786715
60.473251 -5.9204431 -0.65655422 17.452677
54.629353 -5.8093314 -0.6283924 20.05168
57.38567 -5.8402925 -0.62967986 20.05382
57.403614 -5.8042626 -0.68212903 19.364672
57.607788 -5.8545609 -0.62369502 17.124022
55.691143 -5.7106323 -0.60690296 19.548834
58.451843 -5.7594423 -0.60916787 20.059299
60.183964 -5.739645 -0.66259468 18.036554
57.6409 -5.6552896 -0.64294374 18.157986
60.419144 -5.6542687 -0.65169811 17.785891
55.665768 -5.4270782 -0.61948478 20.334721
54.774521 -5.3303318 -0.67724615 19.066107
60.46904 -5.3150177 -0.66306269 17.781143
60.461025 -5.1133637 -0.651007 18.03825
55.641857 -5.0546885 -0.63484448 21.424219
54.575809 -4.9486198 -0.60334831 21.052416
54.63028 -4.9584565 -0.63963747 19.562975
55.654034 -4.8357677 -0.64509737 21.470795
56.914341 -4.8786693 -0.64086694 20.531185
55.589855 -4.7808352 -0.61890543 21.834448
56.939445 -4.7238374 -0.62136292 19.288473
60.432209 -4.7415152 -0.69874054 20.177744
54.652382 -4.6118865 -0.67049247 19.071447
57.466568 -4.6066775 -0.6748656 22.556713
54.587952 -4.564661 -0.60534167 18.817472
54.646145 -4.5647049 -0.64141667 19.317392
55.632275 -4.5410838 -0.60809338 21.387812
57.143272 -4.4482927 -0.65681684 14.016568
57.352818 -4.4707212 -0.6714294 14.016445
57.424507 -4.4610491 -0.69422245 21.09923
60.408482 -4.4633799 -0.67063171 20.248911
54.668545 -4.305706 -0.67967349 20.067755
55.607513 -4.3618279 -0.67861193 24.033857
57.031097 -4.3308802 -0.62844133 13.683141
57.416546 -4.3971291 -0.63136661 22.055059
54.655167 -4.2963419 -0.65753818 19.444824
56.847652 -4.2348943 -0.61741769 21.280365
59.523258 -4.1225395 -0.68714797 20.864029
59.802116 -4.1203709 -0.69694579 17.018688
60.364082 -4.1773663 -0.68923944 19.856359
57.44997 -4.0496483 -0.62847733 21.72436
59.682312 -4.0960369 -0.69062632 19.338375
59.700207 -4.0860147 -0.68645066 18.24457
57.006439 -3.9769242 -0.61847067 12.013864
56.848896 -3.8266006 -0.61677557 22.029676
57.528679 -3.8951564 -0.66398489 20.069487
57.732101 -3.8750601 -0.63423795 22.063307
54.617439 -3.6718097 -0.63345242 19.735502
57.083881 -3.6968131 -0.67524904 23.028852
57.911865 -3.6913414 -0.66672856 24.041733
58.695267 -3.6069503 -0.62169987 19.691778
58.704266 -3.6041005 -0.6163156 20.94866
59.62746 -3.6306686 -0.69474763 23.369219
54.950729 -3.5169535 -0.64340502 20.06863
58.72303 -3.5332298 -0.66403013 24.061726
58.83876 -3.563736 -0.66587853 24.228075
60.330086 -3.5129128 -0.6612187 14.525114
56.87315 -3.485852 -0.61831987 16.596684
57.153645 -3.4489374 -0.60674417 23.991776
57.764877 -3.4734325 -0.64106679 23.71839
58.502739 -3.4264865 -0.64101666 20.525143
54.617149 -3.3584628 -0.64944637 20.152693
55.23587 -3.3748944 -0.66508889 16.016359
56.969147 -3.3014584 -0.68452382 13.713922
57.872395 -3.322156 -0.65624678 20.569965
58.011326 -3.3464999 -0.67341554 22.026016
58.680042 -3.3302186 -0.69890618 22.358532
59.556877 -3.3530121 -0.62617958 19.111975
59.681122 -3.3214388 -0.63289839 24.059719
54.870026 -3.2289777 -0.69471622 18.56568
56.225948 -3.210665 -0.66815859 15.015288
56.428955 -3.2745841 -0.66853327 15.015244
58.098072 -3.2767096 -0.63447851 22.804142
58.710926 -3.2762563 -0.65634489 18.018347
58.878036 -3.2880182 -0.6962769 21.856623
58.914997 -3.2625606 -0.63652515 17.518105
59.11438 -3.2779322 -0.69182074 19.496336
59.269398 -3.2691865 -0.67257613 20.835302
59.304287 -3.2607081 -0.63065338 17.017706
54.473541 -3.1048727 -0.68814397 14.68074
54.504635 -3.1111183 -0.68089092 16.107546
55.215267 -3.1905396 -0.62411505 15.516053
55.439693 -3.1419475 -0.67377162 15.84211
55.833427 -3.1311257 -0.65632868 24.508568
56.243755 -3.1115046 -0.63192749 24.786674
56.714962 -3.1469376 -0.64954764 14.514832
57.046032 -3.1208448 -0.66164386 16.304289
57.719734 -3.1226542 -0.6728549 23.625603
53.666187 -3.067996 -0.67281216 14.990822
53.815773 -3.0261033 -0.6770348 14.939026
54.037979 -3.0798349 -0.689399 17.201235
54.266212 -3.0697157 -0.68120271 14.723857
55.720917 -3.0944214 -0.69591147 13.957755
57.268436 -3.019309 -0.69390148 15.687915
58.371159 -3.0208306 -0.63291246 21.167439
58.511841 -3.0251336 -0.69576454 16.939991
58.718849 -3.0723243 -0.67625761 16.928991
59.254265 -3.0267956 -0.66186094 21.765919
60.008141 -3.0389276 -0.65526509 11.00983
53.848671 -2.985935 -0.69935673 21.56842
58.029243 -2.9750161 -0.61153084 20.641672
58.297928 -2.9697273 -0.63455069 25.289816
58.934338 -2.9906635 -0.6184321 20.023403
59.01965 -2.9797196 -0.67676669 11.510017
59.109177 -2.9740109 -0.67924798 16.860838
59.29351 -2.9913821 -0.68808091 14.513605
59.542343 -2.9327459 -0.66637027 21.550892
59.636505 -2.980701 -0.69399583 16.097395
59.866364 -2.948559 -0.6976161 18.427689
60.081436 -2.9054136 -0.68418247 14.733605
60.087784 -2.8923705 -0.69243807 17.877136
60.456806 -2.8137031 -0.62488228 14.404345
60.066475 -2.7855196 -0.60834497 18.378162
60.122799 -2.7836351 -0.64039516 21.111769
60.317619 -2.7700515 -0.6909321 26.015759
60.533039 -2.7489829 -0.66454387 16.616013
60.676674 -2.7181613 -0.67802173 14.732457
60.928467 -2.7400751 -0.69261998 11.009293
61.032959 -2.7364206 -0.63281006 17.715168
61.277046 -2.7427316 -0.67310762 15.566774
58.225266 -0.54125386 -0.69062799 14.640796
58.126648 -0.4748055 -0.69625533 13.531853
57.725098 -0.3634721 -0.68679368 12.005787
58.131573 -0.27243078 -0.68423843 13.723359
58.125896 -0.088022001 -0.67614287 15.198254
58.450428 -0.080194354 -0.66282415 9.6728172
58.109653 0.085147023 -0.69550103 13.427752
58.534191 0.026024103 -0.60681915 9.0058708
58.116768 0.10793418 -0.66571724 15.136836
58.649841 0.1533531 -0.61057925 9.005744
55.754833 -6.871706 -0.59284836 18.048328
55.853077 -6.6408372 -0.59803283 18.067722
58.488926 -6.6317739 -0.52005351 17.550646
55.770935 -6.5620217 -0.54225248 17.056818
60.028118 -6.4921432 -0.55998671 17.54689
54.669598 -6.2684288 -0.59069812 17.55933
55.687588 -6.2532563 -0.52926874 17.78578
58.509014 -6.2460442 -0.58339828 19.050785
60.001087 -6.2468834 -0.53977084 17.796993
54.657772 -6.1022096 -0.52679271 16.83732
59.697433 -6.1588802 -0.50183266 17.047794
55.685162 -6.0354629 -0.57115155 18.577892
58.509022 -6.0297832 -0.57789832 18.77817
59.80352 -5.9623485 -0.55511272 16.026993
60.075787 -5.902885 -0.55900472 16.026461
60.11554 -5.91363 -0.50703788 15.156629
60.307724 -5.9150357 -0.56499213 15.803884
60.524193 -5.9556727 -0.51572126 15.025827
57.470436 -5.8323727 -0.53577065 16.024179
58.320312 -5.8543816 -0.59264761 18.041515
54.602772 -5.7551022 -0.51254547 16.96006
57.573349 -5.7093673 -0.54218936 18.936794
60.300262 -5.782248 -0.55248106 15.692593
55.641407 -5.6702075 -0.58719128 19.635317
58.434929 -5.673152 -0.50264859 17.276958
59.738899 -5.66855 -0.51131034 16.356134
60.087074 -5.6577048 -0.53644317 15.776086
54.649567 -5.50248 -0.5407474 18.151907
57.854504 -5.5192704 -0.53247386 18.427893
58.158569 -5.5190568 -0.52614111 18.805756
58.29438 -5.5598078 -0.58670962 19.088255
58.316601 -5.5675559 -0.54748946 18.800955
54.496613 -5.4918966 -0.53937215 17.566273
55.660721 -5.4490409 -0.53406048 18.958698
59.7346 -5.4848709 -0.55711216 17.284576
54.581127 -5.2657423 -0.58344859 20.052172
54.659321 -5.2244072 -0.59641874 18.066418
54.656879 -5.174355 -0.56696516 18.229303
60.416634 -5.1053414 -0.58140355 16.524712
55.598553 -5.0895267 -0.59591186 20.812572
57.244034 -5.0638247 -0.55637074 17.023302
56.98925 -4.8855085 -0.53089321 17.023376
55.646496 -4.7300587 -0.52051759 20.034233
57.143871 -4.6961603 -0.56616652 17.522835
60.442436 -4.6790805 -0.58881921 17.023979
54.565933 -4.557229 -0.58178318 21.552759
55.566593 -4.5278072 -0.57418305 21.534197
56.890522 -4.5176225 -0.57149899 18.809353
60.434071 -4.4360008 -0.52700824 15.44828
54.490307 -4.2483277 -0.51661032 20.11854
54.514957 -4.280488 -0.50731766 19.355844
54.624783 -4.2005167 -0.51175678 18.728819
55.660492 -4.2276115 -0.55156773 19.728685
60.3727 -4.2308836 -0.58197451 15.018321
60.414986 -4.2126598 -0.59594095 15.303966
56.807281 -4.112988 -0.54662699 13.016311
59.643627 -4.1069884 -0.59749943 22.715204
60.41407 -4.1113229 -0.54534698 16.356379
54.626907 -4.0956798 -0.59635472 18.47217
56.74456 -4.0751667 -0.52097487 16.723358
57.556679 -4.0714207 -0.59036499 21.063347
54.516479 -3.977277 -0.54756308 20.255949
54.6008 -3.9572554 -0.52575845 19.229256
56.919613 -3.9609604 -0.5029158 12.515991
56.761669 -3.8941376 -0.57736546 11.763877
57.503132 -3.8415864 -0.59298331 22.055428
60.392689 -3.8527889 -0.55708808 15.584661
54.512264 -3.7067487 -0.51573086 20.076778
54.606785 -3.7875557 -0.52430254 18.068661
56.637493 -3.7180986 -0.55898762 14.838956
56.96825 -3.7554061 -0.56235582 22.045128
57.094513 -3.7691844 -0.52756166 19.067427
59.610584 -3.7870777 -0.57310694 23.048775
59.839977 -3.7355514 -0.55856282 17.023281
54.526886 -3.6869171 -0.51078337 19.289389
56.621582 -3.6940455 -0.55434662 11.51265
57.291279 -3.6402693 -0.5742861 21.064554
58.719013 -3.6843786 -0.57819998 23.051804
58.844799 -3.6222417 -0.55416876 22.228287
59.116428 -3.6268854 -0.57024008 20.709284
54.655567 -3.5273986 -0.50390226 17.406275
56.699787 -3.5165541 -0.57831377 19.708994
56.712864 -3.5146947 -0.57102311 17.647535
56.864929 -3.5032163 -0.5935095 22.112387
57.692162 -3.5091832 -0.55261493 17.51997
59.056736 -3.5847876 -0.53963745 16.018538
60.367332 -3.5167055 -0.50676137 13.955152
54.493366 -3.4507353 -0.5468803 21.415237
56.798798 -3.4948165 -0.57402503 13.515339
56.867859 -3.4794025 -0.56048411 21.585075
57.200684 -3.4021592 -0.55977213 21.099443
57.469849 -3.4702344 -0.59699583 21.277494
57.502579 -3.4793041 -0.54966724 21.166626
59.653866 -3.4598286 -0.51111329 21.120148
54.590351 -3.390131 -0.54890722 20.313568
56.893471 -3.3002224 -0.5433706 16.425581
57.509777 -3.3922486 -0.54455495 17.019981
57.665085 -3.3864415 -0.56521547 22.206078
57.948032 -3.3473523 -0.59579152 23.721304
59.486595 -3.3285615 -0.56229413 16.017651
59.540058 -3.3158042 -0.50097769 18.756376
59.667507 -3.3758147 -0.53706449 21.884897
60.310497 -3.3248107 -0.543679 14.046608
53.423882 -3.2271204 -0.51844466 9.0021973
54.688496 -3.2740018 -0.51779622 22.094315
54.722904 -3.2417192 -0.54875278 24.289661
54.960655 -3.2169867 -0.56737 24.367544
55.090115 -3.2117841 -0.52860796 22.05744
56.663555 -3.2570827 -0.53121108 14.702483
56.916767 -3.2918367 -0.53942263 19.466469
58.170963 -3.2473655 -0.52601892 21.563435
58.200058 -3.2900457 -0.55203593 19.569611
53.521431 -3.1274033 -0.53430372 21.466503
54.073162 -3.1039002 -0.51148868 15.650391
54.690063 -3.1858106 -0.52694464 21.457979
54.714802 -3.1845396 -0.54504985 22.976595
54.999008 -3.1671948 -0.55264103 24.145117
55.076584 -3.1767673 -0.51953995 18.827881
55.339745 -3.1397119 -0.57667232 20.63463
55.434246 -3.1118746 -0.51228833 18.318947
55.8946 -3.1008029 -0.5639832 23.520403
55.946251 -3.1058331 -0.56463867 22.606787
56.248257 -3.1142898 -0.55995059 22.733944
56.954239 -3.1362996 -0.57282245 9.0020523
57.060822 -3.1310458 -0.57762778 15.678835
57.104462 -3.1268532 -0.57598698 18.857473
57.727005 -3.1083329 -0.58251172 23.991585
60.243568 -3.1481006 -0.53690559 10.011446
53.515594 -3.0606515 -0.54525411 8.0015888
53.865883 -3.0845897 -0.54081333 19.669748
53.920456 -3.0620461 -0.59140521 13.011877
54.084702 -3.0966411 -0.51998299 17.271391
54.346092 -3.0954998 -0.51224029 18.617315
55.650074 -3.0748646 -0.50822216 18.230505
55.901501 -3.0985248 -0.56225693 22.829903
56.157597 -3.095928 -0.51819921 20.969309
56.871132 -3.0585401 -0.52663642 21.491211
57.100166 -3.0767894 -0.57329416 14.696739
57.527485 -3.0785401 -0.55382609 23.709539
57.919724 -3.0781288 -0.53085172 20.914757
58.090118 -3.0560539 -0.50332409 15.346618
58.286358 -3.0656922 -0.5440765 20.450546
58.371597 -3.0377347 -0.5675981 17.26827
58.507538 -3.0271101 -0.51201922 15.729038
58.90374 -3.0310552 -0.59579456 17.451408
60.018177 -3.0645454 -0.52592337 10.01142
53.739758 -2.983058 -0.55314803 23.743073
53.805798 -2.980334 -0.56760371 20.315929
57.338524 -2.9343057 -0.56991827 20.64896
57.48172 -2.9000823 -0.52399671 16.899891
57.715034 -2.9633274 -0.5435878 19.443802
58.384167 -2.9491689 -0.544487 18.828815
58.43359 -2.9980018 -0.52372277 10.611906
59.894344 -2.9307048 -0.51194203 15.210138
59.921257 -2.9476728 -0.5760498 13.250401
61.21471 -2.9269078 -0.55480701 19.030043
57.490044 -2.8961251 -0.50959909 16.33231
60.094898 -2.89098 -0.51152217 13.433728
60.29493 -2.8039515 -0.51039511 9.8110104
60.463196 -2.7852161 -0.56280833 12.744161
60.64222 -2.7517564 -0.52870136 15.858109
60.941116 -2.7224853 -0.51596332 24.138769
61.268356 -2.7223148 -0.51275295 21.168419
57.950481 -1.089344 -0.58404863 20.543957
58.201874 -0.48430768 -0.59699178 9.006381
58.569759 -0.44298887 -0.5593195 11.00711
58.686192 -0.42044044 -0.56496936 11.008319
58.81686 -0.48700094 -0.55703163 9.0051765
58.286034 -0.31389558 -0.56916481 13.009417
58.430077 -0.32061046 -0.55779147 16.511608
58.70916 -0.3169612 -0.53833485 14.067329
58.215794 -0.2318933 -0.59700251 9.0061369
58.448448 -0.27209222 -0.57336915 11.005627
58.729076 -0.29432395 -0.54496074 11.007584
58.457024 -0.13988094 -0.54753399 19.225691
58.695667 -0.10319693 -0.55894661 10.720765
58.707424 -0.10551777 -0.54076302 13.370008
58.700531 -0.098234475 -0.54631937 12.84654
58.803314 0.050306439 -0.51490289 9.0049505
58.399948 0.19801855 -0.57391065 23.59269
58.742001 0.10581212 -0.53716683 10.973484
58.421448 0.24425769 -0.59785849 13.008321
58.298714 0.30928946 -0.58588862 18.011068
55.798668 -7.0179729 -0.47418928 16.062485
59.78278 -6.2937965 -0.45123586 14.038007
57.32338 -6.1676698 -0.40101695 16.053719
59.721527 -5.9817314 -0.49007085 16.205357
60.491547 -5.9428964 -0.49281144 14.665626
58.016582 -5.8715491 -0.40833768 15.042359
58.447002 -5.7007027 -0.47750536 17.356775
58.337292 -5.6022758 -0.4064914 16.051586
59.54137 -5.6990371 -0.47181571 15.371501
59.917744 -5.6250763 -0.48162115 17.592773
60.404392 -5.6181717 -0.42664114 14.035903
59.517109 -5.5289745 -0.49558029 15.407485
59.924839 -5.495153 -0.43806779 17.047323
60.437824 -5.3601584 -0.40461838 13.935559
55.677155 -5.1095028 -0.40253043 17.049109
60.437382 -5.071104 -0.49180889 15.429939
60.442226 -4.9395838 -0.46093228 13.426762
57.443714 -4.8696356 -0.40849066 17.562393
57.479012 -4.7021856 -0.4112581 17.754871
54.573547 -4.6261239 -0.46044171 16.357214
54.64444 -4.6848969 -0.49167749 17.067215
57.2603 -4.6680355 -0.42844644 17.224115
57.480247 -4.6766453 -0.47779617 18.002563
57.201862 -4.4567943 -0.49153554 18.279867
57.455162 -4.4917679 -0.42114252 18.043604
57.511551 -4.4707789 -0.43371442 18.303181
54.523293 -4.2850914 -0.48684853 18.699064
54.629807 -4.2958236 -0.49482504 17.898245
55.537754 -4.2150335 -0.49550092 20.658863
57.137123 -4.2294488 -0.45577413 18.029654
54.545815 -4.1049218 -0.41384542 16.072227
56.776772 -4.1308327 -0.44922844 12.016363
57.014774 -4.1763906 -0.47501886 19.045004
57.752247 -4.1169066 -0.47067535 17.818884
57.879929 -3.8640008 -0.42608315 18.758499
57.156761 -3.7430763 -0.45629281 19.06464
57.739597 -3.7203741 -0.4266963 19.304865
60.343372 -3.6075835 -0.48943004 12.014655
56.532639 -3.5826597 -0.44824278 19.058521
59.058781 -3.5604908 -0.49641085 18.785631
60.362213 -3.512151 -0.43229291 11.013283
59.242466 -3.4890208 -0.41655612 19.631998
59.572079 -3.4894831 -0.46645653 16.023266
56.938805 -3.3523996 -0.49669433 10.679698
58.928638 -3.3239098 -0.42062116 19.728256
59.110485 -3.3518763 -0.48278093 22.050735
53.445179 -3.2138638 -0.43979681 16.574345
54.670387 -3.2629995 -0.49516308 20.589088
55.0966 -3.2570121 -0.48837197 20.062563
56.457703 -3.2191818 -0.44906357 13.591714
57.390205 -3.206512 -0.41351706 15.019777
54.067211 -3.110455 -0.4795545 11.638067
54.289162 -3.1190031 -0.46185982 11.139125
54.486374 -3.147892 -0.40940538 11.011752
54.511784 -3.1315813 -0.49050197 18.434328
55.140442 -3.1852329 -0.47494948 13.650265
55.457741 -3.1114187 -0.46486327 14.650342
56.70723 -3.1045372 -0.46416193 17.770815
57.239632 -3.1003666 -0.48384446 12.168287
53.68885 -3.0824866 -0.4647226 13.183377
53.703693 -3.0748279 -0.48123011 17.631443
55.676212 -3.0945528 -0.43332911 11.762745
56.530575 -3.0663006 -0.48673561 20.719883
56.662537 -3.0895488 -0.44546843 11.987389
56.704853 -3.0960419 -0.45565492 17.630995
57.241199 -3.0915854 -0.48932591 13.215475
58.120014 -3.0210171 -0.4825348 12.171569
58.427505 -3.0126665 -0.45702729 11.26356
58.730389 -3.0470052 -0.47068495 13.943425
59.357452 -3.0068812 -0.47982129 10.008128
59.760075 -3.0864239 -0.46232185 21.548544
59.802746 -3.0215755 -0.49477378 10.00986
57.467041 -2.9031308 -0.47756386 11.067712
57.873119 -2.9656723 -0.42221609 10.011202
57.910458 -2.9625406 -0.47020403 15.057298
58.49939 -2.9561775 -0.49573764 18.447723
58.518517 -2.9590716 -0.48901942 19.051548
58.87458 -2.9542866 -0.42696738 20.179993
59.067329 -2.9729497 -0.46265584 12.960324
59.383533 -2.9875321 -0.47270274 12.220167
59.720356 -2.9644971 -0.47121477 12.377168
59.586502 -2.8756154 -0.43360457 19.035017
60.096649 -2.8830807 -0.49969763 14.944891
60.678459 -2.8022819 -0.44787461 15.020145
60.06971 -2.780242 -0.40925699 15.021008
60.122211 -2.7718327 -0.4128553 16.526939
60.36578 -2.757884 -0.46223769 22.652777
60.919434 -2.7097645 -0.48270035 23.47064
61.057182 -2.7476385 -0.47696227 12.636441
61.270714 -2.7119496 -0.49863654 22.222038
58.057003 -1.1065364 -0.48574409 18.132029
58.877666 -0.34089157 -0.4618381 11.519813
59.059887 -0.25875306 -0.470954 19.016211
58.89119 -0.12800895 -0.45443818 10.822269
59.52536 -0.12061739 -0.47970814 10.007754
59.046875 0.09035635 -0.45664051 10.007546
55.751484 -6.9388485 -0.35828248 13.714999
58.497429 -6.9618959 -0.30520838 13.862981
55.740292 -6.6254754 -0.3660818 14.048442
58.514729 -6.3414369 -0.31455046 13.925731
55.717411 -6.2870994 -0.33761272 14.048599
60.099216 -6.1885715 -0.32272053 12.526831
55.721378 -6.0642486 -0.35656741 14.917109
54.52673 -5.961885 -0.35723582 15.051871
60.425972 -5.9739032 -0.33781868 12.637121
58.478931 -5.8638711 -0.38500276 15.154198
55.706234 -5.7138443 -0.30079585 14.428642
58.289562 -5.7160239 -0.30809891 14.434552
59.720848 -5.606678 -0.37224227 14.456467
60.056896 -5.6652632 -0.35405427 13.217636
60.386429 -5.6153054 -0.30839914 12.442215
58.071686 -5.5341206 -0.3270292 14.148071
58.230709 -5.5676174 -0.36047849 14.436387
57.918869 -5.4923038 -0.33287215 14.861061
59.724403 -5.4480133 -0.32809073 13.208422
57.783676 -5.3820596 -0.31482518 14.042859
57.917652 -5.350698 -0.39403927 15.542455
60.536972 -5.2713914 -0.30983961 12.524792
55.633385 -5.1693544 -0.30633473 15.292014
54.559029 -5.0776529 -0.34993201 15.066765
60.442112 -4.9576807 -0.34236318 12.521068
54.533508 -4.8990402 -0.35620081 15.233724
57.344334 -4.8824997 -0.35198474 16.501492
60.429317 -4.76123 -0.34218293 13.170633
54.526855 -4.6134262 -0.3835758 15.703851
57.288166 -4.6658254 -0.30417123 15.495446
57.437202 -4.6842599 -0.30112803 15.354161
57.246864 -4.5724454 -0.3110584 14.77995
57.087326 -4.4396014 -0.31990337 15.448402
57.315525 -4.4997692 -0.30219278 15.084204
60.389565 -4.4595528 -0.31253904 12.174525
55.614391 -4.2574224 -0.32665819 15.859866
56.656616 -4.1047106 -0.32214767 16.030645
56.910206 -4.1139679 -0.32784277 16.030022
60.381599 -4.1415811 -0.34038296 12.244802
56.674152 -4.0723495 -0.35579249 16.871714
56.862591 -4.0709267 -0.32015124 16.037857
57.757774 -4.0250697 -0.33820784 16.235682
57.800442 -4.0298567 -0.36255032 17.812931
54.447433 -3.936069 -0.30602029 15.659199
57.922058 -3.9156659 -0.32601926 16.046373
60.354324 -3.9233932 -0.31119606 10.656527
60.359726 -3.8907504 -0.32709831 12.061607
54.64119 -3.7087142 -0.37773815 17.062914
56.607533 -3.7493718 -0.32730544 17.046438
56.956165 -3.7644551 -0.30110443 16.104921
57.294521 -3.7368414 -0.38424537 11.015376
57.796242 -3.7836909 -0.31671083 16.069336
57.843208 -3.7532582 -0.34822744 17.092691
57.902767 -3.7709825 -0.36949208 17.399235
60.364441 -3.6768532 -0.32600379 10.693472
56.875656 -3.5080395 -0.30590349 16.347181
57.381523 -3.5381229 -0.33716714 16.620424
58.892174 -3.5075374 -0.35109192 15.658438
59.293205 -3.5111642 -0.36594403 17.734426
60.350231 -3.5356939 -0.32136202 12.004156
54.672489 -3.4643865 -0.32327676 15.573019
57.137577 -3.4571712 -0.31792429 16.841234
57.677853 -3.4538269 -0.31646153 17.248323
58.868015 -3.4955988 -0.35024664 16.033712
59.159401 -3.470232 -0.36472532 13.927696
60.360039 -3.4990191 -0.31553504 10.165888
57.630203 -3.388525 -0.3520028 18.123146
58.91264 -3.3170252 -0.32375866 13.031696
59.076714 -3.3352053 -0.34380358 11.515875
59.112186 -3.334481 -0.33670095 14.866796
59.226845 -3.3355641 -0.38171515 18.928747
53.438301 -3.2002101 -0.38160086 15.737769
54.918667 -3.2609289 -0.32508716 10.847416
55.13686 -3.2093256 -0.35878494 10.738889
55.376083 -3.2060516 -0.31364602 17.037003
56.339535 -3.2364502 -0.3304967 10.896693
58.001728 -3.2930984 -0.30572557 17.554533
58.898846 -3.2426493 -0.35696685 9.0120459
53.440372 -3.1122372 -0.33971298 9.2597494
53.69907 -3.1151423 -0.33388352 11.559937
53.708221 -3.1017606 -0.30118039 13.582675
54.049908 -3.1505764 -0.30328903 12.317055
54.246819 -3.1399875 -0.34947085 11.560163
54.309383 -3.1416812 -0.32821792 13.671228
54.554394 -3.1759517 -0.3107965 10.237133
54.872334 -3.1815488 -0.35745668 10.969646
54.911114 -3.1436327 -0.32558 12.336215
55.168289 -3.1521523 -0.34500864 12.01603
55.435299 -3.1216087 -0.3638095 11.105641
56.079914 -3.1578436 -0.31759799 10.245346
56.471855 -3.1058311 -0.3467105 10.013927
56.521652 -3.1061106 -0.30966276 13.863783
56.63435 -3.1044655 -0.33369803 10.125643
56.887093 -3.1083536 -0.30796671 14.566574
56.933228 -3.1166139 -0.34927139 12.224405
57.11348 -3.106194 -0.30137104 14.564121
58.086014 -3.1219969 -0.30580309 12.227797
58.10331 -3.1451347 -0.30519599 9.6141529
59.148918 -3.1091447 -0.33690834 9.010128
53.692726 -3.0937915 -0.31976187 11.479465
53.701275 -3.0939114 -0.33173853 12.653112
55.470753 -3.0983934 -0.30087602 13.537395
55.738514 -3.0941837 -0.3161104 11.265464
56.523361 -3.0980883 -0.30688322 15.28378
56.681313 -3.0893054 -0.32577986 14.325097
57.265911 -3.0128853 -0.37811485 11.080917
57.327389 -3.0936482 -0.30132645 14.283689
57.683552 -3.0762434 -0.3561925 18.695801
57.856667 -3.052129 -0.38411874 15.921656
58.248386 -3.0405254 -0.32268852 16.591959
58.611279 -3.058604 -0.3573426 14.005442
59.110786 -3.0501103 -0.31506222 14.442519
59.255867 -3.0323257 -0.3523134 17.818611
57.370857 -2.9198055 -0.34686136 15.705177
57.436584 -2.9077065 -0.36115155 19.158184
57.686108 -2.9223089 -0.37548482 17.219837
57.742809 -2.9555938 -0.39184895 12.405733
57.838566 -2.9602079 -0.33832204 19.055479
58.352165 -2.9357321 -0.30419362 15.958701
58.47419 -2.9625192 -0.31213042 8.8443241
58.506607 -2.943459 -0.33433449 12.702984
58.721069 -2.919162 -0.32784948 18.214365
58.918072 -2.9204595 -0.3651962 17.969902
59.098373 -2.9702203 -0.35735726 13.725719
59.128098 -2.9619894 -0.35237837 14.912651
59.550842 -2.9445577 -0.37333024 15.022204
60.1441 -2.9058933 -0.34899306 13.923521
57.458603 -2.8754754 -0.37475365 20.000822
58.978374 -2.8761268 -0.35623598 18.037186
59.222713 -2.8734074 -0.36907387 18.036295
59.498627 -2.896426 -0.37745857 17.702433
59.738865 -2.8732102 -0.37393045 20.048719
59.98978 -2.8529339 -0.35812938 19.797764
60.127834 -2.8910954 -0.3517251 13.619195
60.666603 -2.8031125 -0.35933048 9.0077229
60.146023 -2.7649143 -0.36784491 20.29718
60.369217 -2.7667799 -0.31627724 18.894905
60.445301 -2.7716823 -0.30430627 13.473986
60.682159 -2.7196164 -0.31002426 12.409361
60.920406 -2.7137303 -0.30879736 18.195953
61.048744 -2.7403607 -0.31632587 13.202595
61.28603 -2.7417352 -0.34070209 10.178182
61.305542 -2.7272007 -0.33476782 13.109612
59.635323 -0.3380127 -0.37337732 20.073454
59.086987 -0.28299743 -0.33732286 10.926805
59.273361 -0.29530382 -0.31807905 15.416014
58.465675 -6.7485094 -0.261103 13.050653
59.998154 -6.5030618 -0.29756266 13.332685
60.061146 -6.2796092 -0.28773817 12.30833
58.515396 -6.1115127 -0.27879167 12.796006
59.627682 -6.1819859 -0.23484723 12.603532
54.612339 -6.0673904 -0.23743923 12.822991
59.517933 -6.0794435 -0.2857666 12.322751
54.691254 -5.9559183 -0.21844901 13.065391
55.641415 -5.931767 -0.21771872 13.035594
57.481201 -5.9097805 -0.23119149 12.027803
59.329849 -5.9203262 -0.2278728 11.03889
59.741215 -5.97016 -0.29698318 13.897728
57.509125 -5.8760147 -0.27408329 12.996514
57.643242 -5.8870792 -0.26661405 12.424025
54.593418 -5.7566776 -0.28585118 14.051831
54.604015 -5.7741981 -0.21528459 12.615598
58.295753 -5.7141185 -0.29977989 13.621982
58.422302 -5.7843194 -0.28475514 13.79485
57.6674 -5.6643438 -0.22864389 12.02366
58.015919 -5.6893883 -0.23354761 13.052365
57.692348 -5.5460973 -0.29143181 14.241345
57.704933 -5.5258102 -0.24974516 13.081503
59.947327 -5.5156312 -0.26101184 13.852455
54.584305 -5.4974961 -0.25824255 13.706227
59.535206 -5.4151092 -0.27523491 13.095578
60.040607 -5.4414754 -0.25730646 12.025845
60.371155 -5.4142995 -0.27749938 12.108604
55.64888 -5.3765702 -0.28830141 14.708697
59.529846 -5.332592 -0.28776425 13.620814
60.084057 -5.3930879 -0.29299578 13.354198
54.634159 -5.1995454 -0.23518956 14.070699
55.660301 -5.1383643 -0.27954513 14.883034
60.429119 -5.0376992 -0.28839695 12.409206
56.959648 -4.7032771 -0.21510322 12.531214
60.432278 -4.766552 -0.24930039 11.019105
56.926849 -4.5211878 -0.25337797 13.961011
60.433552 -4.5271645 -0.21694523 10.685401
55.635151 -4.4615612 -0.29979998 15.059535
56.954426 -4.4440522 -0.23719642 13.8766
57.161507 -4.4433393 -0.28968537 14.696612
57.279865 -4.483747 -0.27819988 14.912486
60.422684 -4.4878969 -0.28745991 12.062855
56.938988 -4.3228474 -0.28315058 10.016538
54.393978 -4.2741055 -0.26714277 16.053558
54.466995 -4.2189207 -0.24888702 14.244278
54.562923 -4.1563649 -0.21362269 13.572144
57.459084 -4.1036201 -0.27397045 15.402593
60.410973 -4.1908627 -0.21812776 10.768226
57.158703 -4.0561156 -0.20806357 13.529317
54.475887 -3.9531727 -0.25379103 15.583026
57.440342 -3.945796 -0.29161334 15.028453
57.662914 -3.9536734 -0.2294616 15.05484
56.57399 -3.8081217 -0.26859015 15.141478
56.683666 -3.8124037 -0.2452386 15.05779
56.885246 -3.8086834 -0.29458404 15.529562
57.122517 -3.7585201 -0.21540134 14.770926
54.461304 -3.6421807 -0.2510609 15.928983
57.496826 -3.6636741 -0.21155882 8.0131989
56.33572 -3.5192204 -0.24436148 14.989236
56.662754 -3.5357182 -0.25618806 15.208888
56.84042 -3.5142288 -0.26854974 14.806922
57.415115 -3.5750306 -0.20834534 8.0131168
54.464046 -3.4572525 -0.26243591 15.126052
56.348232 -3.4958658 -0.24983367 14.91932
56.427704 -3.4836071 -0.2488472 15.719701
57.114254 -3.44134 -0.2652953 14.755585
57.492813 -3.4976864 -0.23820566 11.989532
57.676487 -3.4465644 -0.29884133 16.688894
56.742245 -3.3225937 -0.27527735 9.1807632
56.930542 -3.3025434 -0.20394945 7.5129666
57.34267 -3.308861 -0.29279587 14.365012
57.866356 -3.3826895 -0.27693754 17.06385
60.33263 -3.3136837 -0.27415991 10.820196
54.663887 -3.2496402 -0.2415655 15.02428
55.35545 -3.210335 -0.28148088 15.02289
56.89352 -3.2996171 -0.25922769 13.912449
56.91304 -3.2523456 -0.26313207 12.835778
57.007336 -3.2406552 -0.27396595 10.014787
57.37772 -3.2979088 -0.29320109 14.023684
57.448902 -3.2210591 -0.25790235 16.22587
58.273628 -3.2619715 -0.26754475 16.189774
53.517715 -3.1598041 -0.23487635 15.295784
53.825733 -3.1123073 -0.24915974 15.985204
54.095947 -3.1371241 -0.26667771 14.235838
54.107376 -3.1301329 -0.26141801 15.052964
54.489773 -3.1478868 -0.28324702 13.215167
54.518463 -3.1629503 -0.29543391 11.40834
54.734844 -3.1620538 -0.22231674 15.269506
55.08606 -3.126627 -0.26898807 13.759061
55.346428 -3.1279767 -0.25455162 15.206317
55.897507 -3.1015198 -0.28283983 16.301731
56.067234 -3.1420441 -0.27685758 12.876713
56.252445 -3.1357265 -0.27932224 16.433393
57.110088 -3.110508 -0.29721305 14.639826
60.321442 -3.1180105 -0.2909925 9.7457905
55.676052 -3.0550897 -0.27509496 14.747995
55.885315 -3.0938733 -0.24448888 15.942815
57.127247 -3.0747159 -0.29393679 11.653666
58.249249 -3.0192659 -0.28940305 16.29364
58.530567 -3.0196278 -0.2344625 16.053053
53.714489 -2.984519 -0.21729004 17.038496
57.179474 -2.9754591 -0.29128206 15.398642
57.24218 -2.9510183 -0.20829923 8.0019636
57.346973 -2.9300964 -0.29661784 16.03647
58.091389 -2.9586053 -0.29400578 14.525751
58.12257 -2.968257 -0.27444974 12.521695
60.340523 -2.8943918 -0.27396578 9.1422729
60.426472 -2.8499629 -0.2642898 14.087787
60.448517 -2.7755332 -0.26934594 11.034891
60.937435 -2.7250395 -0.28091195 17.949017
61.064228 -2.7472599 -0.28889933 11.515303
58.128716 -1.0358484 -0.26443568 19.501692
59.111732 -0.13687477 -0.29812378 10.22845
55.881947 -6.879221 -0.1327322 12.062519
55.766644 -6.709486 -0.12666957 10.048367
54.614269 -6.3414383 -0.18003745 11.551433
55.825413 -6.3077788 -0.18512511 13.06815
55.686638 -6.2553439 -0.18322945 12.035795
57.960987 -6.2498913 -0.18131201 11.024125
59.639751 -6.2731719 -0.11005641 9.543128
55.72258 -6.1568193 -0.15069462 11.048635
59.500286 -6.0208955 -0.15892249 10.620357
58.509003 -5.9100628 -0.14329454 11.710756
59.723751 -5.9303842 -0.11634185 9.9178257
58.510559 -5.8739791 -0.1405282 10.029193
60.0909 -5.830389 -0.17986834 12.046821
58.059387 -5.7017126 -0.13892388 11.751158
58.456757 -5.7795029 -0.12978399 11.030091
59.485107 -5.667192 -0.14353038 9.7049742
54.676765 -5.5824661 -0.116964 12.065906
58.1334 -5.5458717 -0.14041196 13.381619
60.486229 -5.5443959 -0.13813904 10.02529
54.677666 -5.4991093 -0.15506822 13.068144
59.771626 -5.4311295 -0.18352099 10.481806
60.077263 -5.4940906 -0.1498374 10.07669
54.580929 -5.2208595 -0.17716736 12.445408
54.554066 -5.1692848 -0.17988591 12.941236
54.629692 -5.0494871 -0.12338134 12.317761
57.217583 -4.9071093 -0.11999774 11.02309
54.548203 -4.879148 -0.13534451 12.518784
57.06414 -4.8927832 -0.18124869 11.023286
57.29488 -4.8815784 -0.1133577 12.04282
57.329723 -4.8703074 -0.11103985 12.384636
57.175842 -4.7973166 -0.11532125 11.022966
54.494579 -4.6589098 -0.14487718 13.052921
57.270096 -4.6682215 -0.1342939 13.618564
57.444386 -4.6358299 -0.1107017 13.29802
60.433891 -4.60077 -0.17072311 7.0131083
56.886971 -4.5235071 -0.16313946 11.022919
57.309387 -4.5089407 -0.10683317 13.232689
56.670727 -4.4286871 -0.15145215 11.023076
57.27623 -4.4199667 -0.11191995 13.396694
54.499592 -4.3023853 -0.14403541 12.910361
54.534378 -4.3040886 -0.16720968 13.116148
56.648899 -4.3564787 -0.1696206 13.03107
60.398632 -4.3787003 -0.16915539 7.0128622
60.400658 -4.2082376 -0.1159111 8.0141983
54.60376 -4.1864471 -0.16790015 13.062228
57.035202 -4.1142144 -0.10579678 9.5295973
57.211735 -4.1383929 -0.14615881 9.5204811
54.495731 -4.0655632 -0.14317563 12.395978
56.733387 -3.9364588 -0.18691458 8.0139532
57.424625 -3.9691384 -0.18451767 8.0116682
54.52816 -3.8845663 -0.11344953 12.568615
57.312263 -3.8242958 -0.12294596 12.028543
54.494293 -3.7278061 -0.11690791 12.474706
54.524982 -3.723402 -0.100492 12.275322
56.831017 -3.7250721 -0.15614742 11.038351
57.038124 -3.7068806 -0.15158887 14.314927
57.473404 -3.7029583 -0.10624138 8.0152054
54.445786 -3.6910343 -0.15374669 12.563364
56.846939 -3.6619763 -0.16576217 8.0115032
57.488064 -3.6978514 -0.1585363 12.402688
57.923584 -3.5675445 -0.13223344 14.069515
54.622952 -3.4294453 -0.11006854 12.735904
57.182476 -3.4880066 -0.17895614 14.815025
57.480049 -3.4626086 -0.12347516 12.804419
57.503098 -3.4580812 -0.11856839 13.162926
57.749512 -3.4630356 -0.10694281 11.917239
54.724506 -3.3706386 -0.13339525 13.058331
58.040897 -3.3149216 -0.10184676 13.566679
54.451328 -3.2544394 -0.10422933 14.036057
55.338173 -3.2018375 -0.13642895 14.032952
56.745678 -3.2983325 -0.12110167 8.0130835
58.520493 -3.210216 -0.12446086 14.064383
53.467155 -3.1808841 -0.10082623 12.372744
53.677788 -3.1118376 -0.10331257 7.5785685
53.846836 -3.1284049 -0.11725835 8.2021303
54.061001 -3.1513107 -0.16977093 8.0143251
54.87315 -3.1411211 -0.13221571 9.6823444
55.266968 -3.1316614 -0.11077051 13.211701
55.47805 -3.1015985 -0.10968006 9.2689066
55.933548 -3.1432173 -0.15244684 13.967547
56.123623 -3.1601465 -0.13985066 8.0111303
56.261806 -3.1287708 -0.10516274 8.51513
56.651505 -3.1434987 -0.15212847 8.9858856
57.398029 -3.1163645 -0.10449506 13.410089
58.470604 -3.1303191 -0.11389863 8.7243958
58.741875 -3.1382294 -0.11102891 11.024095
58.876297 -3.1650829 -0.10702908 11.029135
60.312988 -3.144845 -0.16204806 7.4543118
53.504044 -3.0480189 -0.17707704 8.0021105
55.701538 -3.0782251 -0.12417009 7.9132981
56.9869 -3.0434752 -0.10198262 9.2028284
57.062847 -3.0376213 -0.1261888 7.5719848
58.145489 -3.0365534 -0.16973336 13.540484
58.295319 -3.0525682 -0.15316311 9.916111
58.306595 -3.0418696 -0.15713936 11.276894
57.480793 -2.9240286 -0.19244546 9.0139761
58.188316 -2.9756756 -0.17945436 8.9897861
58.250095 -2.9155073 -0.17266306 9.6382027
60.300205 -2.9103401 -0.12169749 8.6090136
58.288677 -2.8894565 -0.13722225 9.9890947
58.311096 -2.8779671 -0.13210256 11.824032
60.29385 -2.878727 -0.1683533 7.509582
57.133934 -2.7124619 -0.11818369 11.467632
60.487492 -2.7562096 -0.11739025 11.810965
60.569576 -2.7460103 -0.19002829 7.609375
60.927601 -2.70526 -0.11352142 14.907298
60.896362 -2.6838102 -0.15228011 15.724342
59.276691 -0.13525009 -0.19699104 8.0066462
59.987644 -6.4728141 -0.0041371584 6.5376649
59.971588 -6.3145804 -0.050304428 7.370914
59.564587 -6.2766819 -0.082952768 10.048118
60.10318 -6.2869248 -0.099949099 8.1324787
54.671417 -6.1343069 -0.050330706 10.481556
54.608047 -6.0962105 -0.0027254373 8.8937082
57.505947 -6.0880752 -0.054226145 9.710454
58.521832 -6.0783744 -0.035373285 8.0411043
60.483257 -6.0274148 -0.084551536 7.8932509
57.542465 -5.9177971 -0.072924756 9.5312033
60.527931 -5.9822278 -0.085133851 9.168725
54.574657 -5.7206573 -0.0020732284 9.5601702
58.114738 -5.713007 -0.087694988 9.4420481
58.260269 -5.6883416 -0.074631058 9.8789902
60.457081 -5.6487808 -0.049971536 8.4496822
57.941647 -5.516356 -0.068134345 10.315267
57.766094 -5.4992537 -0.039860502 8.9762945
59.487854 -5.4175696 -0.072418042 9.6602135
57.689831 -5.3542786 -0.090240739 10.043137
59.536285 -5.3395367 -0.054965835 9.1838455
59.899426 -5.3717842 -0.092246056 11.047425
60.459442 -5.3689575 -0.090584673 9.1634073
59.617451 -5.1999369 -0.082592368 11.048268
60.459606 -5.0511875 -0.068342105 8.7064419
60.418385 -4.8445187 -0.070572734 9.0192385
57.088516 -4.7479839 -0.074995145 10.481394
60.438148 -4.6931267 -0.093755044 7.8976855
54.471619 -4.5369611 -0.074975185 11.307529
54.513535 -4.5176849 -0.057670977 11.366523
57.420139 -4.5391359 -0.029321611 7.0165052
60.411968 -4.5255766 -0.065880433 8.8448839
57.152355 -4.4464798 -0.035598129 10.029981
60.39978 -4.4439073 -0.0064421296 7.595089
57.02552 -4.3976688 -0.095747352 8.0165873
56.435268 -4.252193 -0.039811168 10.719724
57.469543 -4.2566562 -0.079653382 7.2904997
56.903667 -4.1212463 -0.00917916 9.696723
57.050343 -4.1127167 -0.094653457 8.0161343
60.390797 -4.1630597 -0.042545572 8.2562323
57.529396 -4.0893269 -0.090604767 13.06338
57.627277 -4.0245819 -0.022333473 11.729957
56.987793 -3.8403416 -0.072716862 10.779366
60.366844 -3.8687851 -0.044276748 8.0207443
56.717541 -3.7867384 -0.0063920319 9.7127342
57.626007 -3.7015097 -0.086828858 12.47404
60.374401 -3.6703331 -0.069070011 7.013494
56.503403 -3.5139005 -0.051532239 11.044309
56.86911 -3.508215 -0.02125752 9.6290674
57.32019 -3.5115054 -0.055239137 7.3464217
60.35537 -3.5624428 -0.049114458 8.5514355
54.448181 -3.445519 -0.096742049 12.498014
54.623238 -3.4507291 -0.08091002 12.404477
56.54792 -3.4709072 -0.073368013 11.029845
